1.417579 0.279383 1.145522
1.417579 0.279383 1.145522
1.417579 0.279383 1.145522
1.417579 0.279383 1.145522
1.417579 0.279383 1.145522
3.027225 2.536781 2.749827
3.094689 2.488427 2.794585
3.086590 2.339285 2.764639
3.135999 2.261486 2.790310
3.158060 2.150125 2.789247
3.162792 2.021728 2.771855
3.209715 1.935231 2.793540
3.228652 1.821678 2.789119
3.279615 1.734072 2.813402
3.298643 1.620274 2.808774
3.336037 1.519361 2.820292
3.362263 1.410586 2.821935
3.331226 1.272217 2.774863
3.383529 1.179108 2.799146
3.428839 1.080120 2.817177
3.462547 0.975004 2.825418
3.472838 0.862433 2.814628
3.511013 0.758004 2.826649
3.540522 0.650733 2.831698
3.571016 0.543185 2.837575
3.606202 0.435459 2.847124
3.632330 0.326560 2.849627
3.658466 0.217592 2.852182
3.689366 0.108199 2.858339
3.719430 -0.001583 2.863776
3.750565 -0.111915 2.869888
3.771988 -0.220596 2.868726
3.803243 -0.331292 2.874633
3.829574 -0.440810 2.876781
3.841662 -0.545292 2.868632
3.867787 -0.653713 2.870374
3.899056 -0.763998 2.875519
3.914646 -0.867147 2.869596
3.981875 -0.994809 2.898973
1.417579 0.279383 1.145522
1.417579 0.279383 1.145522
1.417579 0.279383 1.145522
1.417579 0.279383 1.145522
1.417579 0.279383 1.145522
1.417579 0.279383 1.145522
1.417579 0.279383 1.145522
1.417579 0.279383 1.145522
1.417579 0.279383 1.145522
3.101772 2.621534 2.697693
3.152017 2.544973 2.722713
3.219099 2.484498 2.761948
3.246245 2.371356 2.764544
3.316880 2.304180 2.804830
3.341055 2.184119 2.803787
3.372883 2.071433 2.809103
3.375958 1.933803 2.790002
3.437759 1.845164 2.819988
3.461951 1.725366 2.818401
3.490085 1.608739 2.820060
3.522315 1.494624 2.825012
3.546252 1.375885 2.823415
3.587829 1.265832 2.835740
3.597093 1.141542 2.823077
3.624958 1.025828 2.825052
3.662470 0.912918 2.834444
3.690389 0.796810 2.836699
3.728212 0.682430 2.846400
3.756220 0.565780 2.848940
3.774062 0.448333 2.844274
3.812241 0.332251 2.854365
3.835540 0.215460 2.853859
3.874059 0.097889 2.864096
3.902194 -0.019498 2.866985
3.930350 -0.136947 2.869838
3.958522 -0.254414 2.872614
4.003715 -0.376154 2.886727
4.026008 -0.492453 2.885193
4.065540 -0.613882 2.894943
4.093910 -0.731752 2.897051
4.110740 -0.844486 2.891473
4.156825 -0.969295 2.904624
4.266128 -1.126243 2.957595
1.417579 0.279383 1.145522
1.417579 0.279383 1.145522
1.417579 0.279383 1.145522
1.417579 0.279383 1.145522
1.417579 0.279383 1.145522
1.417579 0.279383 1.145522
1.417579 0.279383 1.145522
1.417579 0.279383 1.145522
1.417579 0.279383 1.145522
3.152621 2.671993 2.616469
3.208752 2.599593 2.644038
3.266640 2.523949 2.672093
3.395490 2.523448 2.756981
3.420244 2.396869 2.755713
3.515413 2.339841 2.810140
3.545720 2.214050 2.812184
3.571329 2.084262 2.810422
3.621585 1.974118 2.827447
3.652123 1.847571 2.829175
3.682628 1.721177 2.830878
3.708093 1.592100 2.828929
3.743491 1.468938 2.834376
3.757604 1.335768 2.824595
3.804126 1.217415 2.838227
3.845754 1.095694 2.848341
3.876089 0.969639 2.850631
3.877647 0.837109 2.833367
3.907574 0.712544 2.835956
3.966930 0.591533 2.858483
4.003714 0.465837 2.865740
4.027476 0.339076 2.864451
4.101604 0.211533 2.896180
4.107377 0.084659 2.883249
4.223727 -0.053146 2.941392
4.174474 -0.171702 2.893480
4.192215 -0.297101 2.888514
4.277198 -0.438250 2.925428
4.357259 -0.582472 2.958531
4.332315 -0.695442 2.926725
4.391458 -0.835098 2.946252
4.344942 -0.932870 2.901854
4.432729 -1.085025 2.937929
4.413204 -1.188442 2.909968
1.417579 0.279383 1.145522
1.417579 0.279383 1.145522
1.417579 0.279383 1.145522
1.417579 0.279383 1.145522
1.417579 0.279383 1.145522
1.417579 0.279383 1.145522
1.417579 0.279383 1.145522
1.417579 0.279383 1.145522
1.417579 0.279383 1.145522
3.126671 2.616392 2.470415
3.221857 2.597054 2.525970
3.275613 2.516113 2.548563
3.391831 2.500789 2.616886
3.494754 2.457597 2.673437
3.534211 2.341320 2.682254
3.642177 2.285347 2.739791
3.751563 2.219614 2.796761
3.796213 2.093928 2.807025
3.859142 1.979543 2.829651
3.879775 1.834770 2.822972
3.951207 1.720730 2.850763
3.990423 1.585892 2.856632
3.997854 1.436360 2.841672
4.070845 1.315651 2.869888
4.125352 1.184424 2.885846
4.137413 1.039135 2.874736
4.074700 0.879321 2.817086
4.080174 0.741361 2.803333
4.146177 0.613459 2.827402
4.219555 0.482551 2.855714
4.326166 0.348241 2.903763
4.390369 0.207694 2.925674
4.354376 0.071175 2.887861
4.403217 -0.069039 2.900693
4.436571 -0.208319 2.904310
4.534180 -0.360911 2.944953
4.511494 -0.489178 2.915984
4.602433 -0.645624 2.951877
4.628267 -0.785061 2.950405
4.695791 -0.939074 2.972026
4.748089 -1.089104 2.984673
4.809237 -1.244035 3.001748
4.755256 -1.344425 2.955884
1.417579 0.279383 1.145522
1.417579 0.279383 1.145522
1.417579 0.279383 1.145522
1.417579 0.279383 1.145522
1.417579 0.279383 1.145522
1.417579 0.279383 1.145522
1.417579 0.279383 1.145522
1.417579 0.279383 1.145522
1.417579 0.279383 1.145522
1.417579 0.279383 1.145522
3.269518 2.638397 2.432245
3.329275 2.561589 2.456657
3.370400 2.458516 2.467607
3.488847 2.433559 2.529755
3.573309 2.362277 2.567726
3.645126 2.271768 2.596370
3.789470 2.235371 2.670857
3.929607 2.180603 2.740788
4.067681 2.110507 2.807734
4.081543 1.949546 2.796179
4.183597 1.841435 2.839035
4.315590 1.740673 2.899194
4.412627 1.613367 2.937294
4.424061 1.446261 2.924162
4.426752 1.279420 2.906482
4.489793 1.133278 2.924409
4.536097 0.980668 2.932665
4.564136 0.823941 2.930678
4.436032 0.648942 2.841280
4.366419 0.494415 2.786382
4.440592 0.353367 2.811979
4.694495 0.204158 2.935450
4.759904 0.047407 2.954806
4.758803 -0.104539 2.938235
4.894794 -0.275141 2.994922
4.892592 -0.426481 2.977772
4.950822 -0.589321 2.992463
4.999192 -0.751028 3.001706
5.016486 -0.903245 2.994696
4.892057 -1.001307 2.915449
4.889878 -1.136149 2.899120
4.858853 -1.254740 2.868444
4.785065 -1.347160 2.816889
1.417579 0.279383 1.145522
1.417579 0.279383 1.145522
1.417579 0.279383 1.145522
1.417579 0.279383 1.145522
1.417579 0.279383 1.145522
1.417579 0.279383 1.145522
1.417579 0.279383 1.145522
1.417579 0.279383 1.145522
1.417579 0.279383 1.145522
3.259028 2.755201 2.312516
3.322990 2.686246 2.337760
3.330160 2.543704 2.327071
3.449944 2.528583 2.385143
3.442976 2.368608 2.365243
3.628505 2.398267 2.460166
3.713989 2.316860 2.493872
3.834139 2.256403 2.546789
4.011606 2.227346 2.631232
4.018420 2.062732 2.617124
4.170070 1.992189 2.684428
4.360525 1.929355 2.771753
4.451184 1.798437 2.802758
4.526456 1.654942 2.824994
4.556484 1.490150 2.822833
4.830159 1.407105 2.949820
4.882539 1.237699 2.958684
4.970040 1.075095 2.985877
5.000039 0.897828 2.983347
5.066427 0.726116 2.999648
5.096296 0.549128 2.997533
5.009493 0.370114 2.937491
5.131958 0.198357 2.982196
5.222866 0.020873 3.010816
5.278126 -0.157361 3.021739
5.320668 -0.335050 3.026421
5.401921 -0.520762 3.049545
5.126346 -0.623093 2.903150
5.211764 -0.801809 2.928764
5.050371 -0.903782 2.838801
4.944144 -1.009636 2.775681
4.883112 -1.122189 2.734163
4.871983 -1.248952 2.715853
4.779961 -1.332925 2.661215
1.417579 0.279383 1.145522
1.417579 0.279383 1.145522
1.417579 0.279383 1.145522
1.417579 0.279383 1.145522
1.417579 0.279383 1.145522
1.417579 0.279383 1.145522
1.417579 0.279383 1.145522
1.417579 0.279383 1.145522
1.417579 0.279383 1.145522
3.222222 2.685362 2.164862
3.335962 2.682462 2.215662
3.364214 2.564979 2.217927
3.418791 2.475946 2.234288
3.550863 2.462002 2.291739
3.611334 2.364884 2.309664
3.779666 2.358457 2.383612
3.849012 2.252973 2.404479
3.919313 2.143567 2.425349
4.090245 2.098167 2.496659
4.192563 1.993510 2.532135
4.419490 1.950458 2.628511
4.503141 1.813918 2.652940
4.668074 1.708288 2.716345
4.782468 1.569458 2.754497
4.958228 1.442960 2.821183
5.255143 1.335615 2.943593
5.399803 1.167884 2.993280
5.461557 0.975769 3.004236
5.508503 0.780211 3.008550
5.600504 0.587733 3.033403
5.648037 0.389477 3.038180
5.727976 0.190158 3.057470
5.696763 -0.005160 3.027726
5.504620 -0.175869 2.928404
5.411635 -0.341310 2.873685
5.300389 -0.491555 2.812041
5.105180 -0.608720 2.715618
5.068097 -0.750980 2.687464
5.094934 -0.907641 2.686453
4.888747 -0.978740 2.588474
4.914791 -1.123733 2.587686
4.912227 -1.254998 2.575064
4.765705 -1.314375 2.504083
1.417579 0.279383 1.145522
1.417579 0.279383 1.145522
1.417579 0.279383 1.145522
1.417579 0.279383 1.145522
1.417579 0.279383 1.145522
1.417579 0.279383 1.145522
1.417579 0.279383 1.145522
1.417579 0.279383 1.145522
1.417579 0.279383 1.145522
3.166577 2.591691 2.015058
3.254388 2.561223 2.047680
3.364835 2.546939 2.090353
3.477015 2.521466 2.132693
3.579036 2.473019 2.169088
3.609515 2.346568 2.171053
3.676511 2.252048 2.189802
3.875262 2.258863 2.268288
3.920935 2.130634 2.275858
4.148472 2.124023 2.364500
4.154228 1.957649 2.353372
4.452067 1.956823 2.470132
4.508934 1.806520 2.480498
4.766990 1.742424 2.576830
4.918789 1.613754 2.626486
5.095030 1.481364 2.685649
5.396938 1.369434 2.796067
5.503521 1.187524 2.824438
5.519991 0.984082 2.815891
5.613973 0.793050 2.839055
5.965693 0.616334 2.965194
5.944784 0.400525 2.941614
5.709245 0.195170 2.834186
5.740790 -0.002044 2.832908
5.804361 -0.201817 2.844179
5.725667 -0.381617 2.800700
5.427958 -0.507957 2.674436
5.256276 -0.635670 2.597783
5.080102 -0.744586 2.520573
5.002561 -0.867556 2.481217
4.949465 -0.990010 2.451407
4.870590 -1.094946 2.412483
4.943912 -1.257098 2.429451
4.718879 -1.280568 2.338244
1.417579 0.279383 1.145522
1.417579 0.279383 1.145522
1.417579 0.279383 1.145522
1.417579 0.279383 1.145522
1.417579 0.279383 1.145522
1.417579 0.279383 1.145522
1.417579 0.279383 1.145522
1.417579 0.279383 1.145522
1.417579 0.279383 1.145522
3.244185 2.674228 1.932204
3.309852 2.610793 1.950981
3.390691 2.558350 1.975587
3.562626 2.595873 2.037393
3.608149 2.484884 2.045731
3.659772 2.377371 2.056295
3.850254 2.387355 2.122347
3.889943 2.255569 2.127044
4.083551 2.236227 2.192098
4.156126 2.115765 2.208804
4.237332 1.996415 2.228573
4.440146 1.938845 2.294277
4.541776 1.812655 2.320730
4.760385 1.730476 2.390402
5.041284 1.652418 2.481893
5.307683 1.544116 2.566577
5.531028 1.400901 2.634362
5.642039 1.214749 2.660893
5.564520 0.989959 2.620178
5.789623 0.814412 2.687101
6.015871 0.621632 2.753547
5.723504 0.397612 2.639231
5.771264 0.198452 2.643962
5.738791 0.003911 2.621365
5.707727 -0.184172 2.599703
5.754100 -0.377670 2.604496
5.564106 -0.525687 2.530323
5.484473 -0.680286 2.493830
5.346157 -0.808673 2.438528
5.164491 -0.908798 2.369812
4.923077 -0.970003 2.282637
4.948980 -1.114952 2.282724
4.862067 -1.209984 2.246654
4.869546 -1.339781 2.240970
1.417579 0.279383 1.145522
1.417579 0.279383 1.145522
1.417579 0.279383 1.145522
1.417579 0.279383 1.145522
1.417579 0.279383 1.145522
1.417579 0.279383 1.145522
1.417579 0.279383 1.145522
1.417579 0.279383 1.145522
1.417579 0.279383 1.145522
3.237970 2.646385 1.810648
3.318304 2.602116 1.832289
3.390931 2.540274 1.850616
3.441177 2.447348 1.860561
3.601283 2.460740 1.908625
3.673081 2.373536 1.925084
3.725374 2.263973 1.934510
3.891090 2.241776 1.982114
3.936604 2.114911 1.988532
4.440724 2.292226 2.146775
4.416960 2.093218 2.128842
4.446071 1.931040 2.128556
4.538126 1.801096 2.148654
4.702680 1.696789 2.191616
4.936843 1.605280 2.255922
5.013851 1.442509 2.270119
5.440325 1.371140 2.392598
5.640191 1.210831 2.443548
5.610159 0.995975 2.423777
5.595781 0.790485 2.409257
5.852997 0.610900 2.476655
5.919115 0.405944 2.486280
5.767699 0.202796 2.431603
5.864748 0.001622 2.450771
5.660510 -0.172365 2.381966
5.450972 -0.324271 2.312666
5.414611 -0.488245 2.294134
5.305981 -0.629060 2.255247
5.194254 -0.756926 2.216005
5.122472 -0.885227 2.188515
5.138714 -1.035864 2.185965
5.020377 -1.131869 2.146021
4.892166 -1.211558 2.103833
4.899599 -1.341880 2.099310
1.417579 0.279383 1.145522
1.417579 0.279383 1.145522
1.417579 0.279383 1.145522
1.417579 0.279383 1.145522
1.417579 0.279383 1.145522
1.417579 0.279383 1.145522
1.417579 0.279383 1.145522
1.417579 0.279383 1.145522
1.417579 0.279383 1.145522
3.239772 2.629337 1.694412
3.315735 2.580258 1.711389
3.404243 2.537423 1.731672
3.480986 2.472679 1.748067
3.635239 2.477583 1.786508
3.724829 2.405356 1.805662
3.842623 2.349305 1.832432
3.899451 2.234084 1.841604
4.105461 2.224036 1.892082
4.206855 2.123665 1.912884
4.440384 2.095117 1.969397
4.408176 1.899810 1.953214
4.599541 1.821408 1.997281
4.768189 1.716522 2.034681
4.928811 1.594932 2.069475
5.064275 1.452822 2.097274
5.498474 1.381933 2.202125
5.670210 1.213966 2.238070
5.670429 1.004423 2.229898
5.751416 0.809224 2.242443
5.934649 0.618269 2.280643
5.897878 0.408094 2.263538
5.946908 0.203850 2.268050
5.642933 0.020671 2.185700
5.530013 -0.152246 2.151239
5.451258 -0.317127 2.125585
5.427799 -0.482617 2.113646
5.259717 -0.609519 2.067187
5.218190 -0.754009 2.051486
5.201021 -0.899687 2.041741
1.417579 0.279383 1.145522
12.602357 -4.067332 3.761966
5.009489 -1.250215 1.980527
4.911707 -1.335587 1.952722
1.417579 0.279383 1.145522
1.417579 0.279383 1.145522
1.417579 0.279383 1.145522
1.417579 0.279383 1.145522
1.417579 0.279383 1.145522
1.417579 0.279383 1.145522
1.417579 0.279383 1.145522
1.417579 0.279383 1.145522
1.417579 0.279383 1.145522
3.255987 2.631021 1.583435
3.290106 2.531079 1.587465
3.434150 2.553429 1.617116
3.484910 2.459904 1.624605
3.669417 2.494564 1.662679
3.743974 2.407083 1.675061
3.820523 2.315533 1.687700
3.919462 2.235847 1.705165
4.022656 2.151072 1.723325
4.236557 2.130748 1.765590
4.454906 2.091930 1.808206
4.474762 1.925456 1.807259
4.613499 1.818818 1.831946
4.836072 1.737216 1.874220
5.048095 1.632286 1.913734
5.466551 1.575793 1.996149
5.483021 1.372898 1.993654
5.621539 1.199864 2.016591
5.621491 0.994221 2.010805
5.813636 0.816433 2.044496
5.965424 0.621695 2.069652
5.963168 0.412543 2.063475
5.859564 0.209183 2.037109
5.793767 0.016533 2.018670
5.487542 -0.141914 1.952813
5.361247 -0.297078 1.923246
5.174397 -0.427103 1.882175
5.202957 -0.588064 1.883590
5.196812 -0.739033 1.878275
5.212667 -0.893303 1.877268
5.100258 -1.001135 1.851679
5.034838 -1.115423 1.835331
5.011120 -1.239375 1.827065
4.896470 -1.316787 1.801734
1.417579 0.279383 1.145522
1.417579 0.279383 1.145522
1.417579 0.279383 1.145522
1.417579 0.279383 1.145522
1.417579 0.279383 1.145522
1.417579 0.279383 1.145522
1.417579 0.279383 1.145522
1.417579 0.279383 1.145522
1.417579 0.279383 1.145522
3.298685 2.666314 1.477124
3.317451 2.545946 1.477978
3.473869 2.580279 1.502749
3.484515 2.442952 1.502044
3.549043 2.360572 1.510601
3.661279 2.316537 1.527184
3.739353 2.232783 1.537800
3.914578 2.218500 1.564617
4.169820 2.243468 1.604466
4.235567 2.117972 1.612452
4.293963 1.984994 1.619173
4.462693 1.908924 1.643918
4.628166 1.816805 1.667885
4.807677 1.717030 1.693891
5.050157 1.625940 1.729777
5.310491 1.519773 1.768167
5.634038 1.408587 1.816242
5.666401 1.206282 1.817779
5.604664 0.989478 1.804537
5.895064 0.825876 1.846613
6.319690 0.649388 1.909215
5.993624 0.415810 1.854865
5.760487 0.214289 1.815422
5.936969 0.012901 1.839274
5.728696 -0.160962 1.804147
5.516201 -0.313035 1.768737
5.389937 -0.460154 1.746732
5.249498 -0.590595 1.722818
5.312853 -0.761142 1.729706
5.248333 -0.894479 1.717463
5.165068 -1.013260 1.702565
1.417579 0.279383 1.145522
1.417579 0.279383 1.145522
1.417579 0.279383 1.145522
1.417579 0.279383 1.145522
1.417579 0.279383 1.145522
1.417579 0.279383 1.145522
1.417579 0.279383 1.145522
1.417579 0.279383 1.145522
1.417579 0.279383 1.145522
1.417579 0.279383 1.145522
1.417579 0.279383 1.145522
1.417579 0.279383 1.145522
3.284486 2.629460 1.361019
3.373660 2.594826 1.370481
3.468713 2.557007 1.380587
3.533753 2.477972 1.387235
3.562472 2.358422 1.389740
3.690451 2.328343 1.403530
3.763065 2.239045 1.411000
2.972502 1.478749 1.321026
2.975798 1.384075 1.320919
2.940542 1.266707 1.316494
2.893105 1.148934 1.310734
2.874837 1.054576 1.308264
2.858396 0.965399 1.306011
1.417579 0.279383 1.145522
1.417579 0.279383 1.145522
1.417579 0.279383 1.145522
3.735371 0.897455 1.400989
1.417579 0.279383 1.145522
1.417579 0.279383 1.145522
2.696185 0.435269 1.285297
2.680002 0.374889 1.283142
2.665227 0.317168 1.281148
2.659118 0.261716 1.280101
2.637064 0.208739 1.277334
2.619547 0.158176 1.275072
2.620507 0.107387 1.274810
2.600910 0.061221 1.272350
2.587167 0.016242 1.270534
2.572911 -0.026601 1.268682
2.568065 -0.070283 1.267849
2.551730 -0.108746 1.265813
2.542707 -0.147828 1.264573
2.541215 -0.188448 1.264149
1.417579 0.279383 1.145522
1.417579 0.279383 1.145522
1.417579 0.279383 1.145522
1.417579 0.279383 1.145522
1.417579 0.279383 1.145522
1.417579 0.279383 1.145522
1.417579 0.279383 1.145522
1.417579 0.279383 1.145522
1.417579 0.279383 1.145522
1.417579 0.279383 1.145522
3.300665 2.631158 1.250266
3.334917 2.531493 1.252956
3.468863 2.540050 1.261340
3.532304 2.460349 1.265859
3.594218 2.374106 1.270370
3.007488 1.702681 1.237448
2.941524 1.544017 1.234335
2.911571 1.424161 1.233271
2.874142 1.305406 1.231722
2.844170 1.198501 1.230566
2.842761 1.114235 1.231073
2.806102 1.013748 1.229419
2.794005 0.931109 1.229198
2.779319 0.850688 1.228776
2.746840 0.767156 1.227215
1.417579 0.279383 1.145522
2.724019 0.626299 1.226543
2.705339 0.558279 1.225693
2.686918 0.493482 1.224819
2.670800 0.431977 1.224052
2.643936 0.372332 1.222577
2.631571 0.316666 1.221982
2.629032 0.262996 1.221984
2.612622 0.211317 1.221092
2.612524 0.160358 1.221217
2.594066 0.112917 1.220168
2.580387 0.067021 1.219416
2.569468 0.022499 1.218838
2.554800 -0.019293 1.218023
2.547381 -0.061244 1.217677
2.546309 -0.103892 1.217748
2.534776 -0.141613 1.217163
2.521624 -0.176900 1.216488
1.417579 0.279383 1.145522
1.417579 0.279383 1.145522
1.417579 0.279383 1.145522
1.417579 0.279383 1.145522
1.417579 0.279383 1.145522
1.417579 0.279383 1.145522
1.417579 0.279383 1.145522
1.417579 0.279383 1.145522
1.417579 0.279383 1.145522
1.417579 0.279383 1.145522
3.316844 2.632854 1.139510
3.382751 2.570107 1.141679
3.481039 2.536599 1.144013
3.536355 2.448748 1.146586
1.417579 0.279383 1.145522
2.966320 1.656365 1.150123
2.912809 1.511966 1.151788
2.897718 1.406256 1.153501
2.880832 1.303698 1.155125
2.846834 1.194666 1.156530
2.828798 1.101241 1.157943
2.805252 1.009179 1.159203
2.778837 0.920454 1.160318
2.766461 0.842382 1.161480
2.746729 0.764740 1.162459
2.723279 0.689646 1.163285
2.706752 0.620297 1.164107
2.695446 0.555141 1.164921
2.672619 0.490476 1.165476
2.661098 0.430575 1.166132
2.651095 0.373006 1.166749
2.633415 0.317188 1.167173
2.622397 0.263870 1.167661
2.610912 0.212504 1.168095
2.593646 0.163614 1.168379
2.586533 0.115643 1.168829
2.575798 0.069789 1.169185
2.560239 0.026737 1.169426
2.550778 -0.015806 1.169782
2.546487 -0.058292 1.170249
2.532846 -0.096420 1.170515
2.527814 -0.135859 1.170979
2.522438 -0.173888 1.171449
1.417579 0.279383 1.145522
1.417579 0.279383 1.145522
1.417579 0.279383 1.145522
1.417579 0.279383 1.145522
1.417579 0.279383 1.145522
1.417579 0.279383 1.145522
1.417579 0.279383 1.145522
1.417579 0.279383 1.145522
1.417579 0.279383 1.145522
1.417579 0.279383 1.145522
3.325771 2.625616 1.029200
3.415588 2.590831 1.027667
3.480705 2.519694 1.027919
3.553608 2.450845 1.028010
3.014606 1.794972 1.060832
2.983731 1.662519 1.065555
2.976812 1.556385 1.068944
2.934713 1.427164 1.073914
2.927706 1.330083 1.077068
2.901898 1.224342 1.080938
2.857549 1.113228 1.085402
2.828357 1.017276 1.089015
2.819614 0.936193 1.091649
2.792209 0.850252 1.094845
2.763776 0.768627 1.097895
2.748890 0.695830 1.100305
2.736268 0.626679 1.102507
2.708148 0.556885 1.105071
2.690144 0.492814 1.107175
2.681608 0.432820 1.108885
2.663390 0.374036 1.110773
2.643491 0.317924 1.112603
2.638635 0.264400 1.113949
2.621802 0.212930 1.115535
2.604390 0.163876 1.117066
2.591794 0.116503 1.118424
2.584175 0.070146 1.119630
2.568461 0.027045 1.120984
2.554429 -0.014386 1.122274
2.554507 -0.058052 1.123268
2.540723 -0.096208 1.124532
2.535600 -0.135666 1.125634
2.528974 -0.173241 1.126771
1.417579 0.279383 1.145522
1.417579 0.279383 1.145522
1.417579 0.279383 1.145522
1.417579 0.279383 1.145522
1.417579 0.279383 1.145522
1.417579 0.279383 1.145522
1.417579 0.279383 1.145522
1.417579 0.279383 1.145522
1.417579 0.279383 1.145522
1.417579 0.279383 1.145522
3.300436 2.576672 0.923761
3.387725 2.541568 0.918798
3.471734 2.493776 0.914688
3.465098 2.346233 0.920973
2.997312 1.768353 0.976531
3.002956 1.670274 0.980166
3.048654 1.606714 0.979705
3.108317 1.550628 0.978025
3.048126 1.407121 0.988126
2.986816 1.272668 0.997920
2.966900 1.171582 1.003505
2.921725 1.061917 1.011125
2.932677 0.985525 1.013520
2.807681 0.853850 1.027380
2.840893 0.794247 1.027468
2.801146 0.710285 1.033467
2.783882 0.637772 1.037411
2.761905 0.567414 1.041538
2.753281 0.502756 1.044466
2.740092 0.439638 1.047598
2.713955 0.377945 1.051532
2.694300 0.319917 1.054842
2.671872 0.264699 1.058213
2.663644 0.211635 1.060491
2.644251 0.161298 1.063442
2.639447 0.111491 1.065345
2.624432 0.064799 1.067865
2.607772 0.020563 1.070435
2.586062 -0.020179 1.073268
2.576128 -0.061832 1.075337
2.569185 -0.102833 1.077214
2.556092 -0.140152 1.079446
2.549482 -0.178237 1.081297
1.417579 0.279383 1.145522
1.417579 0.279383 1.145522
1.417579 0.279383 1.145522
1.417579 0.279383 1.145522
1.417579 0.279383 1.145522
1.417579 0.279383 1.145522
1.417579 0.279383 1.145522
1.417579 0.279383 1.145522
1.417579 0.279383 1.145522
1.417579 0.279383 1.145522
3.353934 2.623890 0.809295
3.423935 2.566052 0.803934
3.528008 2.538080 0.793366
3.502825 2.369669 0.804623
3.004600 1.765160 0.891418
3.015291 1.671989 0.895041
3.043446 1.594179 0.895988
3.118419 1.550487 0.889995
3.220124 1.518806 0.880435
1.417579 0.279383 1.145522
4.424395 2.001518 0.721663
4.589616 1.921031 0.707590
1.417579 0.279383 1.145522
4.848955 1.690618 0.690648
5.182750 1.635168 0.656135
5.287793 1.479555 0.652067
5.317566 1.298307 0.657512
5.295748 1.107362 0.669027
5.469902 0.955088 0.656406
5.777508 0.806715 0.628313
6.145870 0.639016 0.594005
6.141057 0.430677 0.603576
1.417579 0.279383 1.145522
1.417579 0.279383 1.145522
1.417579 0.279383 1.145522
2.664657 0.109604 1.011212
2.631970 0.065292 1.016750
2.640800 0.015526 1.017824
2.627025 -0.028265 1.021240
2.636635 -0.076921 1.022247
2.616299 -0.115497 1.026274
2.601113 -0.153529 1.029747
2.591234 -0.191663 1.032679
1.417579 0.279383 1.145522
1.417579 0.279383 1.145522
1.417579 0.279383 1.145522
1.417579 0.279383 1.145522
1.417579 0.279383 1.145522
1.417579 0.279383 1.145522
1.417579 0.279383 1.145522
1.417579 0.279383 1.145522
1.417579 0.279383 1.145522
1.417579 0.279383 1.145522
3.385752 2.644277 0.695689
3.436191 2.563035 0.692307
3.466974 2.457083 0.693659
3.550357 2.402550 0.683852
3.004847 1.755487 0.808286
3.015289 1.663037 0.812406
3.062973 1.601730 0.808911
3.133913 1.554414 0.801015
1.417579 0.279383 1.145522
4.197782 2.019598 0.608223
4.413380 1.986074 0.577295
4.490070 1.861371 0.573421
4.577239 1.737426 0.567793
4.852648 1.685487 0.528544
5.233393 1.647245 0.472024
5.327287 1.486674 0.467123
5.357160 1.304613 0.473219
5.348270 1.115621 0.485522
5.610680 0.976513 0.452492
5.902675 0.820806 0.415552
6.070299 0.633340 0.399554
6.101054 0.430617 0.405562
6.029051 0.230161 0.427343
6.198471 0.026721 0.411418
5.701387 -0.124388 0.496873
5.632548 -0.289254 0.516090
5.608215 -0.453215 0.528326
5.556761 -0.606331 0.544313
5.521612 -0.756477 0.557710
5.245616 -0.830988 0.604970
5.186577 -0.952926 0.620942
4.120684 -0.702063 0.774805
4.068321 -0.776726 0.787429
3.998933 -0.838278 0.802143
1.417579 0.279383 1.145522
1.417579 0.279383 1.145522
1.417579 0.279383 1.145522
1.417579 0.279383 1.145522
1.417579 0.279383 1.145522
1.417579 0.279383 1.145522
1.417579 0.279383 1.145522
1.417579 0.279383 1.145522
1.417579 0.279383 1.145522
3.397840 2.640738 0.586040
3.432349 2.541912 0.585653
3.504785 2.481471 0.575203
3.575864 2.413173 0.565756
3.027729 1.766845 0.720398
3.037321 1.673167 0.725247
3.062831 1.593498 0.726036
3.146731 1.556350 0.712310
1.417579 0.279383 1.145522
4.239484 2.036053 0.462798
4.402873 1.971157 0.435619
4.546314 1.882200 0.414074
4.719216 1.795562 0.386485
4.845374 1.676003 0.370346
4.904371 1.523777 0.369614
5.341081 1.485876 0.286085
5.383894 1.307565 0.289971
5.348194 1.112682 0.310301
5.552057 0.964753 0.279748
5.835452 0.811639 0.233524
6.117641 0.636970 0.188716
6.044273 0.429927 0.216428
6.058751 0.232105 0.225930
5.685092 0.056956 0.311053
5.672534 -0.117546 0.324295
5.757507 -0.300850 0.318678
5.634163 -0.451601 0.352497
5.582109 -0.604650 0.372375
5.411832 -0.720960 0.413609
5.183270 -0.804606 0.464548
5.208842 -0.950920 0.469058
4.797384 -0.938667 0.550648
4.439050 -0.915596 0.621065
4.402231 -1.003500 0.634748
1.417579 0.279383 1.145522
1.417579 0.279383 1.145522
1.417579 0.279383 1.145522
1.417579 0.279383 1.145522
1.417579 0.279383 1.145522
1.417579 0.279383 1.145522
1.417579 0.279383 1.145522
1.417579 0.279383 1.145522
1.417579 0.279383 1.145522
3.367018 2.586359 0.491340
3.456284 2.551961 0.472036
3.508464 2.469670 0.465683
3.530792 2.354282 0.469378
3.025145 1.754645 0.639448
3.039820 1.666444 0.643117
3.080642 1.599608 0.638874
3.165070 1.562318 0.621850
1.417579 0.279383 1.145522
4.297500 2.062457 0.310332
4.456567 1.992625 0.278369
4.542533 1.872266 0.268004
4.830842 1.839313 0.202046
4.859353 1.675268 0.208799
5.236503 1.636356 0.121831
5.278401 1.461701 0.125882
5.371089 1.300310 0.116480
5.362215 1.112758 0.133275
5.496518 0.953578 0.113239
5.512238 0.771727 0.123223
5.555007 0.594177 0.126168
5.668508 0.418727 0.111746
5.830049 0.236551 0.086100
5.642289 0.062224 0.143894
5.684959 -0.114606 0.146327
5.551581 -0.268338 0.189489
5.528432 -0.427304 0.206539
5.456283 -0.571069 0.234396
5.459962 -0.725123 0.244886
5.347012 -0.843087 0.281028
5.188962 -0.935229 0.326340
4.743737 -0.910377 0.432363
4.424129 -0.900895 0.509335
4.464746 -1.020772 0.509320
1.417579 0.279383 1.145522
1.417579 0.279383 1.145522
1.417579 0.279383 1.145522
1.417579 0.279383 1.145522
1.417579 0.279383 1.145522
1.417579 0.279383 1.145522
1.417579 0.279383 1.145522
1.417579 0.279383 1.145522
1.417579 0.279383 1.145522
3.360011 2.560638 0.392457
3.476925 2.558088 0.359012
3.586691 2.535454 0.329542
3.542855 2.351804 0.358168
3.029473 1.748839 0.557507
3.042187 1.659639 0.562008
3.074812 1.586947 0.559509
3.181663 1.566908 0.531402
1.417579 0.279383 1.145522
4.435565 2.137853 0.127095
4.486838 2.000729 0.125625
4.521977 1.853927 0.129544
4.737198 1.789293 0.075309
4.842568 1.662137 0.057540
4.921394 1.518993 0.048536
4.959621 1.359640 0.052232
5.073526 1.219878 0.032685
5.046432 1.043417 0.055888
5.096310 0.885683 0.055549
5.145420 0.726757 0.055332
5.140420 0.562661 0.070646
5.156132 0.402847 0.079600
5.172535 0.244745 0.088096
5.210546 0.087155 0.090369
5.067607 -0.054090 0.142357
5.166708 -0.212812 0.127457
5.358795 -0.392396 0.088090
5.085029 -0.486625 0.173332
5.079990 -0.623521 0.186367
4.963375 -0.725654 0.228198
5.180306 -0.923182 0.184046
4.787760 -0.917013 0.295077
4.305727 -0.845933 0.425912
4.508366 -1.029625 0.385264
1.417579 0.279383 1.145522
1.417579 0.279383 1.145522
1.417579 0.279383 1.145522
1.417579 0.279383 1.145522
1.417579 0.279383 1.145522
1.417579 0.279383 1.145522
1.417579 0.279383 1.145522
1.417579 0.279383 1.145522
1.417579 0.279383 1.145522
3.372285 2.557640 0.287626
3.472566 2.536516 0.256536
3.572187 2.504390 0.226896
3.568170 2.362055 0.241953
3.039978 1.748610 0.473868
3.054418 1.661164 0.477887
3.087126 1.588597 0.474632
3.176920 1.555902 0.449035
1.417579 0.279383 1.145522
4.286633 2.036595 0.043048
4.334142 1.906619 0.041201
4.437505 1.803480 0.018639
4.416233 1.636823 0.042595
4.513308 1.523535 0.022951
4.466664 1.353461 0.055203
4.484468 1.210924 0.063776
4.631663 1.103091 0.027009
4.565930 0.940009 0.064242
4.624289 0.806404 0.058351
4.607783 0.661533 0.077583
4.633221 0.524127 0.082399
4.682406 0.388040 0.079291
4.758254 0.250221 0.067632
4.706670 0.115111 0.096888
4.756216 -0.022372 0.093641
4.798210 -0.160290 0.092909
4.822148 -0.295900 0.097880
4.658363 -0.391909 0.159993
4.659171 -0.513354 0.171385
4.674575 -0.636524 0.178401
4.883667 -0.819781 0.128678
4.719735 -0.883881 0.188532
4.309868 -0.839012 0.317600
4.498712 -1.015778 0.274472
1.417579 0.279383 1.145522
1.417579 0.279383 1.145522
1.417579 0.279383 1.145522
1.417579 0.279383 1.145522
