1.475837 0.030485 1.144637
1.475837 0.030485 1.144637
1.475837 0.030485 1.144637
1.475837 0.030485 1.144637
1.475837 0.030485 1.144637
3.565526 2.062049 2.788778
3.545679 1.927060 2.773831
3.551022 1.816150 2.778493
3.560781 1.708411 2.786402
3.574113 1.602532 2.796887
3.571716 1.484598 2.794759
3.577240 1.372401 2.798661
3.578376 1.257524 2.798934
3.583936 1.145418 2.802550
3.593947 1.035433 2.809565
3.595085 0.921292 2.809548
3.600660 0.809344 2.813002
3.601754 0.696100 2.812961
3.607297 0.584600 2.816470
3.612823 0.473202 2.820050
3.627349 0.363285 2.830790
3.632862 0.251568 2.834585
3.638357 0.139887 2.838494
3.639291 0.028217 2.838961
3.635632 -0.082767 2.835954
3.641049 -0.193805 2.840159
3.651035 -0.305611 2.848026
3.665629 -0.418897 2.859556
3.661868 -0.528483 2.856733
3.641464 -0.632102 2.840857
3.681966 -0.754839 2.872627
3.673527 -0.861194 2.865967
3.683619 -0.974533 2.873683
3.663009 -1.072707 2.857186
3.699251 -1.199582 2.884998
3.704769 -1.310694 2.888531
3.710302 -1.421488 2.891844
3.711143 -1.528637 2.891264
3.698764 -1.625102 2.880164
1.475837 0.030485 1.144637
1.475837 0.030485 1.144637
1.475837 0.030485 1.144637
1.475837 0.030485 1.144637
1.475837 0.030485 1.144637
1.475837 0.030485 1.144637
1.475837 0.030485 1.144637
1.475837 0.030485 1.144637
1.475837 0.030485 1.144637
3.699802 2.173478 2.763238
3.739667 2.086146 2.793123
3.730573 1.952818 2.787123
3.731141 1.828421 2.787901
3.737027 1.708202 2.792300
3.738531 1.584705 2.793268
3.754247 1.470498 2.804381
3.760253 1.349525 2.808245
3.760922 1.225749 2.808093
3.772307 1.107630 2.815654
3.772957 0.984578 2.815364
3.778968 0.864178 2.818977
3.790375 0.745597 2.826557
3.796369 0.625211 2.830281
3.796904 0.503852 2.830152
3.812834 0.385512 2.841335
3.808752 0.264214 2.838137
3.814641 0.144478 2.842335
3.805862 0.024781 2.836041
3.831868 -0.095314 2.855147
3.832198 -0.214851 2.855745
3.838025 -0.334773 2.860444
3.843847 -0.454799 2.865219
3.849668 -0.574932 2.870036
3.861069 -0.696858 2.878914
3.877163 -0.821065 2.891166
3.867174 -0.935763 2.884362
3.868356 -1.053920 2.885549
3.843258 -1.158309 2.867440
3.869762 -1.287916 2.886675
3.880356 -1.409722 2.894099
3.865466 -1.515151 2.882736
3.887444 -1.643796 2.897940
3.903811 -1.769354 2.908818
1.475837 0.030485 1.144637
1.475837 0.030485 1.144637
1.475837 0.030485 1.144637
1.475837 0.030485 1.144637
1.475837 0.030485 1.144637
1.475837 0.030485 1.144637
1.475837 0.030485 1.144637
1.475837 0.030485 1.144637
1.475837 0.030485 1.144637
3.843874 2.292044 2.730286
3.883482 2.196948 2.757880
3.900305 2.078397 2.769965
3.934988 1.972329 2.793762
3.952964 1.850505 2.806098
3.983534 1.735715 2.826639
3.972226 1.591948 2.818880
3.943810 1.440293 2.799484
3.961979 1.316543 2.811207
3.980215 1.191675 2.822896
3.975007 1.056094 2.818852
3.957944 0.917712 2.806897
3.924388 0.776983 2.783972
3.988068 0.665192 2.826248
4.012747 0.539788 2.842541
4.012772 0.408965 2.842489
4.031094 0.280691 2.854855
4.037488 0.150692 2.859420
4.043857 0.020693 2.864151
4.038185 -0.108700 2.860990
4.038925 -0.237646 2.862276
4.050779 -0.367879 2.871143
4.044954 -0.495197 2.868256
4.069883 -0.629286 2.886071
4.076187 -0.759705 2.891412
4.070301 -0.885930 2.888536
4.088825 -1.020841 2.901995
4.100823 -1.154001 2.910952
4.082623 -1.272531 2.899415
4.095589 -1.405595 2.908645
4.107656 -1.538491 2.917031
4.152139 -1.692435 2.946984
4.108064 -1.788339 2.917026
4.078103 -1.889410 2.896321
1.475837 0.030485 1.144637
1.475837 0.030485 1.144637
1.475837 0.030485 1.144637
1.475837 0.030485 1.144637
1.475837 0.030485 1.144637
1.475837 0.030485 1.144637
1.475837 0.030485 1.144637
1.475837 0.030485 1.144637
1.475837 0.030485 1.144637
3.753883 2.186698 2.539263
3.890487 2.183486 2.624124
3.935944 2.089163 2.652965
4.088973 2.074236 2.747557
4.141495 1.969834 2.780286
4.232055 1.885816 2.836131
4.289736 1.772267 2.871599
4.268180 1.608489 2.858272
4.282724 1.466367 2.866988
4.282771 1.316999 2.866748
4.268199 1.162700 2.857533
4.238885 1.005754 2.839323
4.170911 0.841252 2.797492
4.170442 0.701587 2.797184
4.238913 0.576517 2.839308
4.289214 0.442653 2.870472
4.333226 0.303902 2.897986
4.347728 0.160139 2.907607
4.347370 0.015704 2.908313
4.317142 -0.126403 2.890855
4.361422 -0.272744 2.919370
4.301961 -0.406906 2.884223
4.390436 -0.564903 2.940271
4.412518 -0.714323 2.955556
4.351700 -0.840325 2.919733
4.335935 -0.975696 2.911659
4.300177 -1.100962 2.891140
4.372501 -1.270678 2.937357
4.349958 -1.399484 2.924721
4.462804 -1.599167 2.995759
4.393470 -1.700606 2.953658
4.334334 -1.800937 2.917568
4.341219 -1.939966 2.922129
4.319208 -2.057225 2.908481
1.475837 0.030485 1.144637
1.475837 0.030485 1.144637
1.475837 0.030485 1.144637
1.475837 0.030485 1.144637
1.475837 0.030485 1.144637
1.475837 0.030485 1.144637
1.475837 0.030485 1.144637
1.475837 0.030485 1.144637
1.475837 0.030485 1.144637
3.925173 2.328079 2.505476
3.943069 2.210282 2.516856
4.007822 2.129524 2.554084
4.141416 2.095299 2.629459
4.245900 2.025991 2.688449
4.396220 1.976469 2.772818
4.420169 1.834054 2.786567
4.527990 1.736820 2.846951
4.553262 1.587322 2.861203
4.633534 1.461151 2.906092
4.587530 1.277108 2.880547
4.640582 1.133569 2.910321
4.676309 0.980564 2.930539
4.566970 0.789422 2.869939
4.424559 0.604104 2.791009
4.423544 0.454558 2.791180
4.590140 0.321666 2.885226
4.669703 0.169100 2.930928
4.724312 0.009518 2.962949
4.722816 -0.151649 2.963804
4.665755 -0.306180 2.933689
4.719636 -0.471704 2.965965
4.644237 -0.615653 2.925772
4.706772 -0.786614 2.963208
4.686947 -0.938355 2.954366
4.685089 -1.093951 2.955634
4.595407 -1.213777 2.907224
4.611458 -1.371582 2.918396
4.542232 -1.487983 2.881138
4.566853 -1.647887 2.896794
4.607955 -1.818919 2.921581
4.498581 -1.896807 2.860697
4.368335 -1.948980 2.787596
4.304396 -2.036278 2.751831
1.475837 0.030485 1.144637
1.475837 0.030485 1.144637
1.475837 0.030485 1.144637
1.475837 0.030485 1.144637
1.475837 0.030485 1.144637
1.475837 0.030485 1.144637
1.475837 0.030485 1.144637
1.475837 0.030485 1.144637
1.475837 0.030485 1.144637
3.898798 2.282950 2.355593
3.979030 2.221817 2.397353
4.108601 2.192656 2.463695
4.202536 2.122413 2.512060
4.296054 2.042163 2.560067
4.411045 1.966615 2.618721
4.491845 1.858791 2.660088
4.706978 1.817577 2.768891
4.743823 1.665482 2.788037
4.813079 1.525223 2.823466
5.015753 1.431814 2.926079
4.935769 1.221458 2.886536
5.045782 1.076310 2.942767
5.065906 0.899477 2.953907
5.063631 0.717564 2.953949
4.863733 0.509123 2.854461
4.770690 0.331469 2.808993
5.055290 0.179703 2.954605
5.075273 0.002633 2.966802
5.061255 -0.173722 2.962010
5.081220 -0.351646 2.974654
5.101226 -0.530950 2.987529
5.007033 -0.688432 2.942443
5.038323 -0.867911 2.961301
4.916675 -1.003969 2.902156
4.873049 -1.154996 2.882736
4.801321 -1.290122 2.848801
4.590505 -1.355844 2.743270
4.514835 -1.467327 2.706742
4.554948 -1.633405 2.729523
4.553512 -1.777968 2.730728
4.442151 -1.851617 2.674972
4.464772 -2.004990 2.688026
4.374120 -2.076869 2.642299
1.475837 0.030485 1.144637
1.475837 0.030485 1.144637
1.475837 0.030485 1.144637
1.475837 0.030485 1.144637
1.475837 0.030485 1.144637
1.475837 0.030485 1.144637
1.475837 0.030485 1.144637
1.475837 0.030485 1.144637
1.475837 0.030485 1.144637
3.889919 2.254546 2.218343
3.980679 2.203190 2.260603
4.148572 2.204964 2.337196
4.202982 2.102747 2.363082
4.188886 1.946763 2.358185
4.448735 1.971772 2.475763
4.497862 1.843530 2.498976
4.692321 1.790575 2.587302
4.739467 1.645415 2.609571
4.966094 1.576036 2.712470
5.089492 1.444147 2.769137
5.379632 1.357670 2.900976
5.532606 1.203426 2.971384
5.470423 0.983840 2.945099
5.567751 0.801981 2.990915
5.533445 0.593460 2.977580
5.558432 0.394831 2.991253
5.582506 0.194773 3.004781
5.504034 -0.005775 2.972057
5.499377 -0.202103 2.972987
5.227413 -0.368824 2.852435
5.198998 -0.546298 2.842680
5.183826 -0.723214 2.839071
5.040713 -0.866034 2.776959
5.060673 -1.043495 2.789467
4.959991 -1.180491 2.746564
4.874300 -1.313278 2.710351
4.794008 -1.439715 2.676397
4.585922 -1.495171 2.583073
4.593243 -1.646031 2.589045
4.495054 -1.735016 2.545868
4.424785 -1.831460 2.515309
4.439567 -1.977928 2.524009
4.401254 -2.086139 2.507745
1.475837 0.030485 1.144637
1.475837 0.030485 1.144637
1.475837 0.030485 1.144637
1.475837 0.030485 1.144637
1.475837 0.030485 1.144637
1.475837 0.030485 1.144637
1.475837 0.030485 1.144637
1.475837 0.030485 1.144637
1.475837 0.030485 1.144637
3.919063 2.261198 2.098826
3.987581 2.189267 2.127737
4.017849 2.079330 2.141578
4.216027 2.092831 2.221259
4.258128 1.976525 2.239616
4.414379 1.930188 2.302869
4.486886 1.818448 2.333123
4.716156 1.784955 2.425321
4.874663 1.694072 2.489693
5.166799 1.646581 2.607154
5.265188 1.495602 2.648060
5.552091 1.399397 2.764021
5.489584 1.176010 2.741390
5.572231 0.994563 2.776652
5.643819 0.804254 2.807764
6.063282 0.655601 2.978196
5.663992 0.395606 2.821595
5.611990 0.189114 2.803933
5.668718 -0.012488 2.830102
5.601948 -0.211530 2.806818
5.331036 -0.381609 2.701178
5.289052 -0.560523 2.687839
5.173436 -0.719987 2.644679
5.033043 -0.861742 2.591308
5.041376 -1.034097 2.598349
4.890236 -1.151632 2.540248
4.848516 -1.297436 2.526655
4.750890 -1.414116 2.489954
4.668458 -1.528390 2.459218
4.623905 -1.654472 2.443824
4.500408 -1.729606 2.395534
4.445345 -1.835297 2.375205
4.482919 -1.997304 2.393044
4.384891 -2.063926 2.354332
1.475837 0.030485 1.144637
1.475837 0.030485 1.144637
1.475837 0.030485 1.144637
1.475837 0.030485 1.144637
1.475837 0.030485 1.144637
1.475837 0.030485 1.144637
1.475837 0.030485 1.144637
1.475837 0.030485 1.144637
1.475837 0.030485 1.144637
3.861755 2.189366 1.948947
4.018329 2.195791 2.004190
4.129395 2.149393 2.044146
4.243810 2.094026 2.085285
4.329942 2.007458 2.116836
4.421160 1.915744 2.150132
4.542749 1.833170 2.193849
4.769027 1.795035 2.273547
4.655055 1.569918 2.236636
5.121135 1.608922 2.399180
5.240755 1.469418 2.442898
5.567406 1.388001 2.558358
5.591681 1.190179 2.569665
5.616934 0.991701 2.581455
5.721422 0.806660 2.620966
6.003289 0.636454 2.722615
5.789730 0.397841 2.651812
5.703864 0.185762 2.625539
5.636786 -0.017296 2.605879
5.676517 -0.219465 2.623867
5.494721 -0.400987 2.563859
5.289711 -0.560989 2.495394
5.141078 -0.712435 2.446636
5.091143 -0.874062 2.432807
5.066351 -1.038079 2.427909
5.009105 -1.188190 2.411343
4.922125 -1.320827 2.383948
4.870140 -1.460161 2.368938
4.699555 -1.536391 2.310833
4.636884 -1.653477 2.291411
4.610554 -1.784973 2.284946
4.436111 -1.820474 2.224252
4.428044 -1.950556 2.223896
4.419904 -2.078688 2.223317
1.475837 0.030485 1.144637
1.475837 0.030485 1.144637
1.475837 0.030485 1.144637
1.475837 0.030485 1.144637
1.475837 0.030485 1.144637
1.475837 0.030485 1.144637
1.475837 0.030485 1.144637
1.475837 0.030485 1.144637
1.475837 0.030485 1.144637
3.890600 2.195964 1.831509
4.066940 2.217189 1.884480
4.195652 2.182282 1.924056
4.256725 2.084195 1.944322
4.328410 1.987484 1.967657
4.482221 1.936017 2.014797
4.600015 1.848462 2.051674
4.735360 1.759080 2.093804
5.000136 1.719006 2.173924
5.100000 1.582668 2.206170
5.132703 1.412298 2.218861
5.626337 1.391227 2.367432
5.667971 1.196833 2.383351
5.646438 0.985422 2.380699
5.849600 0.818036 2.444901
6.071950 0.634760 2.515313
5.771902 0.387805 2.429980
5.656198 0.177318 2.399522
5.680560 -0.022946 2.411144
5.485207 -0.211497 2.356528
5.551089 -0.409016 2.380850
5.575226 -0.605779 2.392709
5.287061 -0.741152 2.309277
5.093716 -0.872626 2.254339
4.982088 -1.009802 2.224157
4.937962 -1.159355 2.214593
4.915357 -1.312806 2.211596
4.825263 -1.434191 2.187498
4.695012 -1.527204 2.150585
4.650723 -1.653051 2.140252
4.624159 -1.784241 2.135291
4.631436 -1.933124 2.140830
4.493394 -1.984553 2.100218
4.440056 -2.082688 2.086093
1.475837 0.030485 1.144637
1.475837 0.030485 1.144637
1.475837 0.030485 1.144637
1.475837 0.030485 1.144637
1.475837 0.030485 1.144637
1.475837 0.030485 1.144637
1.475837 0.030485 1.144637
1.475837 0.030485 1.144637
1.475837 0.030485 1.144637
3.924288 2.206665 1.714029
4.080360 2.208714 1.753468
4.080250 2.072138 1.756501
4.277057 2.079981 1.805939
4.409654 2.024176 1.840509
4.512584 1.936691 1.868226
4.657755 1.863809 1.906209
4.787421 1.768956 1.940717
4.815598 1.613986 1.950951
5.186196 1.602558 2.044242
5.441580 1.512335 2.110231
5.750971 1.415745 2.189958
5.636018 1.173625 2.166151
5.675879 0.979299 2.180320
6.002321 0.833374 2.265595
5.942185 0.607365 2.255483
5.935171 0.392716 2.258587
5.685366 0.171699 2.200838
5.560358 -0.026386 2.174064
5.584535 -0.221021 2.184851
5.385990 -0.393189 2.139122
5.292732 -0.562537 2.119895
5.404105 -0.764125 2.153030
5.236282 -0.906255 2.114470
1.475837 0.030485 1.144637
4.982636 -1.170588 2.057547
4.869336 -1.289773 2.032159
4.810353 -1.421670 2.020744
4.717084 -1.531077 2.000093
4.680479 -1.661162 1.994180
4.696907 -1.817553 2.002221
4.538211 -1.866069 1.963380
4.522023 -1.993853 1.962340
4.482455 -2.102432 1.954849
1.475837 0.030485 1.144637
1.475837 0.030485 1.144637
1.475837 0.030485 1.144637
1.475837 0.030485 1.144637
1.475837 0.030485 1.144637
1.475837 0.030485 1.144637
1.475837 0.030485 1.144637
1.475837 0.030485 1.144637
1.475837 0.030485 1.144637
3.926180 2.189098 1.589147
4.080474 2.189326 1.620605
4.181563 2.132339 1.642630
4.276498 2.060732 1.663727
4.400422 1.999337 1.690425
4.534465 1.932169 1.719289
4.680600 1.859057 1.750725
4.831235 1.774471 1.783336
4.910492 1.642378 1.802601
4.897613 1.465035 1.804267
5.321924 1.451919 1.890681
5.536270 1.331103 1.937117
5.433403 1.104716 1.921768
5.614849 0.953180 1.962342
6.016356 0.823975 2.047098
6.026978 0.608028 2.054673
5.983727 0.388064 2.051461
5.744915 0.167050 2.008597
5.692824 -0.033336 2.003197
5.498472 -0.219245 1.968565
5.360503 -0.392484 1.945102
5.369452 -0.575214 1.951782
5.314880 -0.745552 1.945261
5.226205 -0.902006 1.931468
5.063300 -1.028023 1.901796
9.415033 -2.679911 2.830235
4.892490 -1.293940 1.874324
4.776841 -1.401383 1.853747
4.721032 -1.526403 1.845780
4.667966 -1.647143 1.838229
4.692486 -1.806612 1.847448
4.615727 -1.904982 1.834412
4.504033 -1.972286 1.813407
4.487485 -2.095619 1.813189
1.475837 0.030485 1.144637
1.475837 0.030485 1.144637
1.475837 0.030485 1.144637
1.475837 0.030485 1.144637
1.475837 0.030485 1.144637
1.475837 0.030485 1.144637
1.475837 0.030485 1.144637
1.475837 0.030485 1.144637
1.475837 0.030485 1.144637
3.880393 2.130149 1.459631
4.105995 2.191130 1.493011
4.137213 2.079332 1.501005
4.289967 2.051958 1.525522
4.398406 1.979847 1.544396
4.547685 1.922501 1.569198
4.640838 1.819140 1.586557
4.805818 1.744384 1.614275
5.110860 1.719343 1.662367
5.073005 1.523001 1.661954
5.284743 1.423085 1.697634
5.668919 1.358485 1.759123
5.603575 1.137500 1.755130
5.613236 0.940833 1.762117
5.825023 0.779442 1.799532
6.039698 0.599559 1.837918
5.894479 0.372714 1.821698
5.887863 0.164839 1.826493
5.706859 -0.038654 1.804072
5.597452 -0.229013 1.792414
5.323343 -0.390570 1.754359
5.357097 -0.574193 1.764770
5.378992 -0.758171 1.773351
5.134487 -0.877721 1.738725
5.065570 -1.026111 1.732197
1.475837 0.030485 1.144637
1.475837 0.030485 1.144637
2.530371 -0.425201 1.321333
2.532793 -0.474530 1.323097
1.475837 0.030485 1.144637
4.525845 -1.703677 1.667379
4.494021 -1.821400 1.665726
4.427234 -1.912276 1.657878
4.477960 -2.078676 1.670407
1.475837 0.030485 1.144637
1.475837 0.030485 1.144637
1.475837 0.030485 1.144637
1.475837 0.030485 1.144637
1.475837 0.030485 1.144637
1.475837 0.030485 1.144637
1.475837 0.030485 1.144637
1.475837 0.030485 1.144637
1.475837 0.030485 1.144637
2.870287 1.237487 1.258020
2.869830 1.165552 1.260178
2.845355 1.075433 1.260318
2.810161 0.980363 1.259466
2.809525 0.911973 1.261535
2.786620 0.830380 1.261613
1.475837 0.030485 1.144637
4.593069 1.619523 1.432692
1.475837 0.030485 1.144637
4.004323 1.068970 1.386188
3.999505 0.943475 1.389616
2.673902 0.405737 1.262762
2.674726 0.348232 1.264650
2.667647 0.289359 1.265715
2.645697 0.229033 1.265205
2.645417 0.173795 1.266874
2.636188 0.118223 1.267574
2.611983 0.063356 1.266621
2.607599 0.010628 1.267738
2.593193 -0.040859 1.267722
2.583723 -0.091400 1.268203
2.573201 -0.140775 1.268526
2.554576 -0.187440 1.267885
2.557043 -0.237535 1.269623
2.554463 -0.286292 1.270770
2.527551 -0.326471 1.269027
2.509650 -0.367566 1.268287
2.504893 -0.412575 1.269086
2.493986 -0.454079 1.269119
2.493244 -0.499711 1.270379
2.500685 -0.549680 1.272658
2.529715 -0.613224 1.277683
2.549593 -0.673019 1.281616
4.334938 -1.968586 1.513161
1.475837 0.030485 1.144637
1.475837 0.030485 1.144637
1.475837 0.030485 1.144637
1.475837 0.030485 1.144637
1.475837 0.030485 1.144637
1.475837 0.030485 1.144637
1.475837 0.030485 1.144637
1.475837 0.030485 1.144637
1.475837 0.030485 1.144637
2.823473 1.186837 1.188201
2.825745 1.120051 1.190554
2.793198 1.026792 1.191700
2.779875 0.950563 1.193477
2.763557 0.873958 1.195108
2.742274 0.796299 1.196487
2.740399 0.731901 1.198623
2.711089 0.654245 1.199527
2.706146 0.591032 1.201443
2.691325 0.524746 1.202850
2.682327 0.462454 1.204473
2.671291 0.400859 1.205935
2.645331 0.336855 1.206539
2.636106 0.279325 1.207941
2.622845 0.222372 1.209054
2.612501 0.167358 1.210260
2.601098 0.113536 1.211340
2.585627 0.060926 1.212107
2.583129 0.009727 1.213606
2.582625 -0.041184 1.215197
2.557912 -0.089215 1.215184
2.545211 -0.136735 1.215879
2.538528 -0.184208 1.216929
2.539934 -0.232987 1.218507
2.523026 -0.276444 1.218781
2.507058 -0.318598 1.219068
2.491012 -0.359180 1.219301
2.485133 -0.402557 1.220251
2.482300 -0.446704 1.221419
2.476355 -0.488800 1.222344
2.471401 -0.530699 1.223338
2.468477 -0.573121 1.224491
2.470701 -0.618326 1.226067
1.475837 0.030485 1.144637
1.475837 0.030485 1.144637
1.475837 0.030485 1.144637
1.475837 0.030485 1.144637
1.475837 0.030485 1.144637
1.475837 0.030485 1.144637
1.475837 0.030485 1.144637
1.475837 0.030485 1.144637
1.475837 0.030485 1.144637
1.475837 0.030485 1.144637
2.822386 1.175925 1.123136
2.805188 1.094150 1.125795
2.786922 1.013397 1.128450
2.774415 0.938667 1.131016
2.750088 0.857746 1.133666
2.741324 0.788875 1.136139
2.722665 0.715786 1.138636
2.712769 0.649319 1.141036
2.700830 0.583328 1.143390
2.680893 0.515726 1.145673
2.673746 0.455035 1.147890
2.661573 0.393934 1.150026
2.646336 0.333627 1.152061
2.634011 0.275780 1.154026
2.617611 0.218791 1.155865
2.604135 0.164014 1.157638
2.595619 0.111142 1.159390
2.589074 0.059364 1.161100
2.574407 0.008572 1.162617
2.564735 -0.041021 1.164140
2.558061 -0.089911 1.165657
2.539143 -0.136150 1.166868
2.534416 -0.183435 1.168316
2.518422 -0.227415 1.169461
2.512598 -0.272839 1.170801
2.494422 -0.313481 1.171785
2.484391 -0.355505 1.172942
2.475340 -0.396929 1.174101
2.468306 -0.438349 1.175303
2.464337 -0.480543 1.176594
2.457220 -0.520396 1.177783
2.455258 -0.562473 1.179151
2.454309 -0.604726 1.180570
1.475837 0.030485 1.144637
1.475837 0.030485 1.144637
1.475837 0.030485 1.144637
1.475837 0.030485 1.144637
1.475837 0.030485 1.144637
1.475837 0.030485 1.144637
1.475837 0.030485 1.144637
1.475837 0.030485 1.144637
1.475837 0.030485 1.144637
1.475837 0.030485 1.144637
2.841650 1.182324 1.057794
2.835094 1.108702 1.060777
2.804951 1.018292 1.065207
2.798248 0.947295 1.068217
2.775728 0.867005 1.072126
2.757034 0.791507 1.075769
2.749124 0.724068 1.078795
2.725277 0.649889 1.082585
2.720198 0.586843 1.085375
2.707100 0.521527 1.088491
2.684929 0.454729 1.091921
2.669649 0.392573 1.094938
2.656292 0.332775 1.097776
2.641853 0.274401 1.100556
2.631371 0.218385 1.103088
2.624873 0.164136 1.105392
2.608210 0.110067 1.107949
2.595526 0.057883 1.110273
2.583797 0.007057 1.112477
2.572013 -0.042512 1.114596
2.569371 -0.091880 1.116399
2.547254 -0.137822 1.118628
2.541462 -0.184960 1.120385
2.522266 -0.228170 1.122384
2.521544 -0.274961 1.123942
2.502210 -0.315325 1.125826
2.491071 -0.356982 1.127513
2.482989 -0.398823 1.129122
2.474860 -0.439772 1.130719
2.473983 -0.483547 1.132218
2.467858 -0.524083 1.133795
2.458545 -0.561889 1.135409
2.452317 -0.600566 1.136999
1.475837 0.030485 1.144637
1.475837 0.030485 1.144637
1.475837 0.030485 1.144637
1.475837 0.030485 1.144637
1.475837 0.030485 1.144637
1.475837 0.030485 1.144637
1.475837 0.030485 1.144637
1.475837 0.030485 1.144637
1.475837 0.030485 1.144637
1.475837 0.030485 1.144637
2.957397 1.269233 0.980878
2.897807 1.148772 0.990267
2.855701 1.047194 0.997634
2.851991 0.976326 1.000887
2.814506 0.884493 1.007637
2.811637 0.817011 1.010802
2.795774 0.743128 1.015254
2.782813 0.672598 1.019369
2.767769 0.602815 1.023619
2.738582 0.529327 1.029079
2.734395 0.467752 1.032147
2.714039 0.402155 1.036568
2.703681 0.341428 1.040001
2.687187 0.280799 1.043846
2.670607 0.222057 1.047571
2.665135 0.166448 1.050287
2.639240 0.110242 1.054501
2.633661 0.057127 1.057020
2.611668 0.005110 1.060671
2.607023 -0.045897 1.062936
2.586926 -0.094586 1.066225
2.578079 -0.143106 1.068627
2.569192 -0.190709 1.070965
2.553014 -0.235613 1.073724
2.542988 -0.280768 1.076016
2.528752 -0.323513 1.078529
2.507147 -0.362073 1.081447
2.504247 -0.406533 1.083188
2.489801 -0.445157 1.085606
2.484724 -0.487121 1.087473
2.482764 -0.530140 1.089181
2.464956 -0.563200 1.091765
2.455500 -0.599778 1.093895
1.475837 0.030485 1.144637
1.475837 0.030485 1.144637
1.475837 0.030485 1.144637
1.475837 0.030485 1.144637
1.475837 0.030485 1.144637
1.475837 0.030485 1.144637
1.475837 0.030485 1.144637
1.475837 0.030485 1.144637
1.475837 0.030485 1.144637
1.475837 0.030485 1.144637
4.017061 2.137067 0.746124
4.219453 2.169712 0.719983
4.271580 2.072814 0.717799
4.424595 2.039817 0.700817
4.523320 1.957912 0.692704
4.687545 1.905184 0.675585
4.879572 1.852118 0.655298
1.475837 0.030485 1.144637
1.475837 0.030485 1.144637
5.383757 1.559903 0.609639
5.281104 1.339756 0.632273
5.350510 1.181671 0.631532
5.502589 1.039061 0.620160
5.961194 0.946155 0.569969
6.391146 0.807688 0.525068
1.475837 0.030485 1.144637
1.475837 0.030485 1.144637
1.475837 0.030485 1.144637
2.649110 0.002877 1.005775
2.651722 -0.050017 1.007557
2.638812 -0.101219 1.011071
2.619616 -0.150130 1.015199
2.622179 -0.201609 1.016792
1.475837 0.030485 1.144637
2.591808 -0.294571 1.023755
2.575466 -0.338474 1.027261
2.562193 -0.381970 1.030392
2.544643 -0.422335 1.033933
2.534381 -0.464390 1.036694
2.524057 -0.505303 1.039459
2.503077 -0.539160 1.043278
2.474552 -0.566408 1.047801
2.462896 -0.601692 1.050666
1.475837 0.030485 1.144637
1.475837 0.030485 1.144637
1.475837 0.030485 1.144637
1.475837 0.030485 1.144637
1.475837 0.030485 1.144637
1.475837 0.030485 1.144637
1.475837 0.030485 1.144637
1.475837 0.030485 1.144637
1.475837 0.030485 1.144637
1.475837 0.030485 1.144637
4.079472 2.170371 0.617528
4.212389 2.145992 0.596355
4.296816 2.073665 0.585556
4.422744 2.021411 0.567184
4.520030 1.939354 0.555100
4.692324 1.891825 0.529257
4.752162 1.768716 0.525582
5.021879 1.742000 0.483098
5.051151 1.585930 0.486202
5.249389 1.493687 0.458697
5.318962 1.340098 0.455132
5.278427 1.148833 0.471259
5.654517 1.065750 0.414205
5.924454 0.927768 0.376950
6.086510 0.749450 0.359008
6.096670 0.540789 0.367034
5.905374 0.319189 0.408294
5.915152 0.119871 0.415470
5.725705 -0.074553 0.454743
5.564541 -0.253268 0.488508
5.560068 -0.434860 0.496594
5.541994 -0.613378 0.506600
5.299764 -0.744403 0.551165
5.204414 -0.889840 0.572237
4.241974 -0.774218 0.724583
4.330382 -0.925449 0.715868
3.777886 -0.841358 0.802657
1.475837 0.030485 1.144637
2.616602 -0.501047 0.978992
2.556373 -0.519787 0.989596
2.513977 -0.542911 0.997508
2.483121 -0.568970 1.003704
2.461739 -0.598121 1.008532
1.475837 0.030485 1.144637
1.475837 0.030485 1.144637
1.475837 0.030485 1.144637
1.475837 0.030485 1.144637
1.475837 0.030485 1.144637
1.475837 0.030485 1.144637
1.475837 0.030485 1.144637
1.475837 0.030485 1.144637
1.475837 0.030485 1.144637
1.475837 0.030485 1.144637
4.052165 2.129838 0.507174
4.225085 2.137667 0.470271
4.350366 2.094698 0.445913
4.435756 2.013154 0.431934
4.589348 1.966154 0.402281
4.687752 1.873247 0.386553
4.774336 1.765364 0.374191
5.056018 1.743359 0.317249
5.208088 1.639725 0.291369
5.423258 1.547072 0.251952
5.283131 1.315528 0.292994
5.390272 1.170167 0.278517
5.640126 1.051049 0.233146
5.954073 0.922963 0.174853
6.188596 0.755238 0.134756
5.973715 0.518663 0.190717
5.871246 0.309685 0.221844
5.728709 0.110097 0.260573
6.003407 -0.086742 0.212545
5.718142 -0.267896 0.279510
5.519757 -0.433064 0.327588
5.568671 -0.619415 0.325214
5.349047 -0.755116 0.376128
5.119990 -0.868723 0.427995
4.472803 -0.840319 0.560483
4.614208 -1.018507 0.538356
1.475837 0.030485 1.144637
3.736153 -0.921529 0.715863
2.636787 -0.508652 0.926475
2.561191 -0.520207 0.942653
2.515278 -0.541339 0.953136
2.493865 -0.572782 0.959034
2.461560 -0.595180 0.966871
1.475837 0.030485 1.144637
1.475837 0.030485 1.144637
1.475837 0.030485 1.144637
1.475837 0.030485 1.144637
1.475837 0.030485 1.144637
1.475837 0.030485 1.144637
1.475837 0.030485 1.144637
1.475837 0.030485 1.144637
1.475837 0.030485 1.144637
1.475837 0.030485 1.144637
4.115176 2.162778 0.374587
4.187053 2.090752 0.359505
4.295764 2.038198 0.334374
4.471057 2.019681 0.290981
4.684823 2.008474 0.237756
4.753355 1.894774 0.226448
4.949148 1.841546 0.180298
5.091349 1.745159 0.149987
5.099348 1.578942 0.157032
5.324889 1.495765 0.105378
5.333334 1.320113 0.112878
5.428763 1.169856 0.097260
5.528723 1.013057 0.080764
5.606204 0.843830 0.070395
5.615200 0.658279 0.077805
5.624217 0.472949 0.084985
5.619651 0.286924 0.095366
5.600370 0.101920 0.109142
5.568383 -0.080244 0.125724
5.564709 -0.260898 0.134924
5.481809 -0.431468 0.163284
5.414419 -0.596660 0.187352
5.314903 -0.748911 0.218750
5.000181 -0.838895 0.301167
4.408089 -0.820494 0.448236
4.535226 -0.990171 0.423621
4.484170 -1.103255 0.441162
3.737841 -0.919444 0.619873
2.633492 -0.505323 0.878252
2.569214 -0.522223 0.895150
2.516507 -0.539715 0.909235
2.488431 -0.566986 0.917647
2.465628 -0.594915 0.924832
1.475837 0.030485 1.144637
1.475837 0.030485 1.144637
1.475837 0.030485 1.144637
1.475837 0.030485 1.144637
1.475837 0.030485 1.144637
1.475837 0.030485 1.144637
1.475837 0.030485 1.144637
1.475837 0.030485 1.144637
1.475837 0.030485 1.144637
1.475837 0.030485 1.144637
4.087230 2.122100 0.268686
4.217577 2.096083 0.230981
4.294317 2.019980 0.211820
4.382626 1.944428 0.189436
4.535956 1.900558 0.146483
4.630249 1.809337 0.123591
4.828021 1.763275 0.068108
5.104119 1.736167 -0.011189
4.977464 1.513534 0.038277
5.153282 1.417638 -0.007678
5.161307 1.250902 -0.000614
5.135965 1.074904 0.016684
5.155402 0.912948 0.020031
5.056583 0.727193 0.059148
5.149331 0.579921 0.039972
5.031106 0.403098 0.083957
5.143145 0.251507 0.058989
5.173288 0.089411 0.058348
5.064907 -0.070748 0.097996
5.211686 -0.239158 0.063088
4.903062 -0.367045 0.159488
4.892451 -0.515018 0.169405
4.881786 -0.661586 0.179163
4.964156 -0.829710 0.162594
4.320865 -0.794158 0.349183
4.592549 -1.007283 0.279227
4.509952 -1.110111 0.308041
3.712381 -0.905953 0.532345
1.475837 0.030485 1.144637
2.573993 -0.522555 0.848439
2.520922 -0.539804 0.864949
2.494814 -0.568142 0.874137
2.470751 -0.595275 0.882735
1.475837 0.030485 1.144637
1.475837 0.030485 1.144637
1.475837 0.030485 1.144637
1.475837 0.030485 1.144637
1.475837 0.030485 1.144637
1.475837 0.030485 1.144637
1.475837 0.030485 1.144637
1.475837 0.030485 1.144637
1.475837 0.030485 1.144637
1.475837 0.030485 1.144637
4.186665 2.183056 0.118700
4.261592 2.111175 0.096505
4.326531 2.025402 0.078597
4.465954 1.982356 0.033541
4.525350 1.878030 0.018924
4.554924 1.751864 0.015746
4.633360 1.648467 -0.004897
4.599741 1.486150 0.015504
4.583647 1.334968 0.029527
4.654157 1.218358 0.012657
4.719696 1.094429 -0.002095
4.627032 0.920651 0.038949
4.700091 0.795400 0.021691
4.715477 0.653281 0.024611
4.722460 0.509332 0.030327
4.631025 0.355379 0.069428
4.753451 0.222784 0.035525
4.769035 0.078476 0.037899
4.683478 -0.063618 0.073902
4.732067 -0.207459 0.064854
4.665309 -0.341563 0.093849
4.672242 -0.481173 0.098296
4.670597 -0.619174 0.105451
4.874625 -0.807266 0.046047
4.301363 -0.787422 0.237098
4.458914 -0.960786 0.192579
1.475837 0.030485 1.144637
3.669027 -0.884993 0.453751
1.475837 0.030485 1.144637
2.583101 -0.525009 0.800591
2.541697 -0.548735 0.815833
2.500091 -0.568592 0.831014
2.474751 -0.594880 0.841121
1.475837 0.030485 1.144637
1.475837 0.030485 1.144637
1.475837 0.030485 1.144637
1.475837 0.030485 1.144637
1.475837 0.030485 1.144637
